# .PCD v0.7 - Point Cloud Data file format
VERSION 0.7
FIELDS x y z
SIZE 4 4 4
TYPE F F F
COUNT 1 1 1
WIDTH 498
HEIGHT 1
VIEWPOINT 0 0 0 1 0 0 0
POINTS 498
DATA ascii
-0.15486571 -0.10209069 0.64777148
-0.14927706 -0.10171556 0.64900005
-0.15511909 -0.097403303 0.64669776
-0.14969537 -0.099623941 0.64900005
-0.12067731 -0.19036111 0.65900004
-0.11377756 -0.1908837 0.65864712
-0.10533909 -0.19119279 0.65834624
-0.099617265 -0.19071507 0.65900004
-0.12014638 -0.18929918 0.65900004
-0.11382848 -0.18641035 0.65802109
-0.10524225 -0.18599631 0.65762091
-0.098909713 -0.18718477 0.65850008
0.03886579 -0.18398952 0.65900004
0.044133127 -0.18491171 0.65900022
-0.15458068 -0.12057714 0.65899998
-0.15399362 -0.11498682 0.65617251
-0.14650662 -0.11369992 0.65621746
-0.15358336 -0.10725458 0.65136844
-0.14509074 -0.10480554 0.65352291
0.078536056 -0.10337039 0.65820009
0.084200181 -0.1041916 0.65724605
-0.15233937 -0.094587013 0.65346432
-0.14523198 -0.096276239 0.65498817
0.077116214 -0.094572291 0.65751034
0.084366083 -0.094838247 0.65569943
0.078419738 -0.089477748 0.65900004
0.083114438 -0.089387231 0.65833336
-0.11500002 -0.20006357 0.66300005
-0.12096396 -0.19386673 0.66088891
-0.11537213 -0.19571413 0.66129076
-0.10472514 -0.19594756 0.66049016
-0.095077276 -0.1939752 0.66239047
-0.086808637 -0.19138508 0.66650009
0.016539048 -0.19129407 0.6653685
0.025439562 -0.19223864 0.66324389
0.035032872 -0.19292788 0.66273916
0.045194149 -0.19338752 0.66181123
0.052586019 -0.19166434 0.66212505
-0.12232193 -0.18456411 0.66472226
-0.1161272 -0.18250227 0.66173911
-0.10463092 -0.181594 0.6620667
-0.094529852 -0.18433899 0.66306061
-0.08625216 -0.18481553 0.66717643
0.017835528 -0.18536843 0.66759461
0.024938339 -0.18495673 0.66421211
0.034896247 -0.18468827 0.66078722
0.045508441 -0.18457347 0.66034412
0.053756025 -0.18420258 0.66251773
-0.1215727 -0.17745851 0.6680001
-0.11503857 -0.17694026 0.66640615
-0.10585228 -0.17848757 0.66721874
-0.093803078 -0.17907979 0.66800004
-0.087496527 -0.17861369 0.66853845
0.017815232 -0.17741747 0.66850001
0.024859533 -0.17733826 0.66687495
0.035045691 -0.17799939 0.66538781
0.045128185 -0.17741485 0.66523319
0.05280491 -0.1772517 0.66637844
-0.15327093 -0.12155715 0.66185713
-0.1483096 -0.12059355 0.66466671
-0.15063737 -0.11939269 0.66000003
-0.14419007 -0.11492825 0.66380948
0.076675802 -0.11164681 0.66488886
0.083311699 -0.11265621 0.66415799
-0.14112446 -0.1064067 0.6638422
-0.13823627 -0.10287447 0.66666675
0.075413369 -0.10541499 0.66377199
0.083673805 -0.10944919 0.66009086
-0.15368675 -0.092058174 0.66411769
-0.14410023 -0.09142857 0.66172725
-0.13564076 -0.094648436 0.66566652
-0.12567337 -0.093152776 0.6685639
0.067061178 -0.093449593 0.66676199
0.072435081 -0.095185563 0.66209519
-0.15150064 -0.089690402 0.66850007
-0.14473267 -0.089502573 0.66710001
-0.13806964 -0.089712761 0.66866666
-0.12735938 -0.089757487 0.66900003
0.058358431 -0.088679448 0.66900009
0.065435767 -0.088116869 0.66769433
0.074882746 -0.087376729 0.66409433
0.084023997 -0.087512791 0.66355872
0.090119138 -0.089489155 0.66700006
-0.081208184 -0.19048898 0.67066669
-0.07766556 -0.19053808 0.67275
-0.064521939 -0.19010597 0.67700005
-0.13217464 -0.18345769 0.67768419
-0.12738325 -0.18256323 0.67266673
-0.081256501 -0.18486586 0.67042845
-0.075155556 -0.18469742 0.67308879
-0.064924449 -0.1843919 0.67585838
-0.054679368 -0.18402892 0.67672223
-0.045840148 -0.18486054 0.67868763
-0.0349552 -0.18467662 0.67851001
-0.027300442 -0.18484513 0.67857158
-0.010555733 -0.1873851 0.67900002
-0.003130879 -0.18470943 0.67854774
0.0054245247 -0.18476617 0.67615771
0.013171455 -0.1850359 0.67174006
0.058867421 -0.18116589 0.67216665
0.06227424 -0.18137607 0.67739999
-0.13346408 -0.17432138 0.67713052
-0.12545167 -0.17413196 0.67235398
-0.11454432 -0.17228591 0.67143196
-0.10470343 -0.17406684 0.67235136
-0.095031135 -0.17437945 0.67246908
-0.084519677 -0.17431408 0.67235166
-0.07510449 -0.17472552 0.67432606
-0.065908954 -0.17684312 0.67687511
-0.055725612 -0.17878275 0.67826325
-0.00078712014 -0.17855644 0.67871428
0.0058525517 -0.17536213 0.67601329
0.014312937 -0.17418736 0.67198676
0.02503607 -0.1726137 0.67210215
0.034916338 -0.17320593 0.6730001
0.044894692 -0.17266124 0.67205888
0.056052353 -0.17365062 0.67330152
0.062322296 -0.17521912 0.67793339
-0.13302316 -0.16878735 0.67800003
-0.12497928 -0.16818608 0.6764093
-0.1149052 -0.16793835 0.67579168
-0.10481838 -0.16780129 0.67617643
-0.095245764 -0.16818863 0.67702335
-0.085146956 -0.16834918 0.67710358
-0.077238761 -0.1690781 0.67815393
0.0084473267 -0.16906983 0.6785
0.015550276 -0.16827966 0.67719996
0.02483093 -0.16824585 0.67704535
0.03487961 -0.16789396 0.67732424
0.044761885 -0.16822734 0.67648941
0.054469131 -0.16827509 0.67739999
0.061083816 -0.16899541 0.67875004
-0.15154797 -0.12343208 0.67433333
-0.14681342 -0.12145016 0.67620003
-0.142593 -0.11483122 0.67409092
-0.13822176 -0.11087141 0.67680001
0.075357258 -0.11365879 0.67275
0.083324961 -0.11715855 0.67492306
-0.14050464 -0.10932545 0.67000002
-0.13418663 -0.10557808 0.67307705
-0.12495503 -0.10521688 0.67486095
-0.11683067 -0.10479409 0.67555106
0.046336275 -0.10094658 0.67899996
0.054752313 -0.10104114 0.67889994
0.065866999 -0.10264328 0.67675006
0.071453266 -0.10543538 0.67300004
-0.15678141 -0.091376327 0.67300004
-0.13189593 -0.099012844 0.67014283
-0.12425341 -0.096269853 0.67147171
-0.1174304 -0.09656696 0.67277282
0.046956748 -0.095425822 0.67626429
0.055008218 -0.095327213 0.67431581
0.063371629 -0.096334741 0.67248791
-0.15243644 -0.088800982 0.6759091
-0.1447392 -0.088339187 0.67466664
-0.13469517 -0.088668548 0.67366666
-0.12693442 -0.088899538 0.6740455
0.048707385 -0.088715352 0.67566669
0.0550505 -0.08682508 0.6724081
0.064662382 -0.084684812 0.67324382
0.074648052 -0.084136724 0.67443991
0.084552206 -0.085581392 0.67406666
-0.14135696 -0.18167639 0.68325007
-0.1371201 -0.18293381 0.68123066
-0.043579575 -0.18216747 0.68044007
-0.035721518 -0.18091223 0.68052393
-0.024030652 -0.18288767 0.68069041
-0.014885226 -0.18428297 0.68110961
-0.0071915532 -0.18430652 0.68035299
0.06585671 -0.18146507 0.68060005
-0.14346096 -0.17404523 0.68219131
-0.13827533 -0.17560053 0.68050009
-0.071204513 -0.17066714 0.68040001
-0.064154364 -0.17253812 0.68346292
-0.055160344 -0.17458893 0.68470001
-0.045455765 -0.1770246 0.6848616
-0.034908522 -0.17698838 0.6854443
-0.024521172 -0.17626038 0.68604916
-0.014606415 -0.17521223 0.68686032
-0.0047894856 -0.17491136 0.68420225
0.0023057107 -0.17171215 0.68112499
0.066816285 -0.17449704 0.68166649
0.073229358 -0.17269917 0.68693954
-0.15111621 -0.16602106 0.68758345
-0.14472538 -0.16578816 0.68625331
-0.13506471 -0.16444458 0.6843614
-0.12511812 -0.16338328 0.6836825
-0.1150412 -0.16316764 0.68314296
-0.10495797 -0.16283815 0.68473113
-0.095072463 -0.16355699 0.6844241
-0.084903382 -0.16371566 0.68298596
-0.074774362 -0.16487634 0.68384695
-0.066901818 -0.16765547 0.68771428
-0.02014781 -0.16904964 0.68900001
-0.017134437 -0.16857381 0.68900007
-0.0034914534 -0.16719854 0.6879766
0.0055404296 -0.16616766 0.6847344
0.015031144 -0.16337392 0.68386567
0.025160538 -0.16324446 0.6833176
0.035061371 -0.16320643 0.68315876
0.044988506 -0.16327372 0.68344444
0.055039741 -0.1634759 0.68372273
0.06495522 -0.16487469 0.68438822
0.075000584 -0.16463004 0.68802691
0.081196703 -0.16333966 0.68900007
-0.12417512 -0.15943594 0.68840003
-0.11578853 -0.15911978 0.68818182
-0.10626661 -0.1596424 0.68833333
-0.094181851 -0.15921107 0.68806666
-0.08699894 -0.15922406 0.68599999
0.018353317 -0.15936024 0.68757147
0.024953049 -0.15919237 0.68772227
0.03531082 -0.15938003 0.68800014
0.045317106 -0.15948325 0.68844444
0.055304956 -0.1594961 0.68849999
0.065289423 -0.15949608 0.68849999
0.073907651 -0.15912332 0.68868756
-0.15353841 -0.12630914 0.68533331
-0.14669515 -0.12286747 0.68633336
0.079769306 -0.12130791 0.68900001
0.082634844 -0.12081805 0.68516666
-0.14243624 -0.11730381 0.68407702
-0.13498911 -0.11325327 0.68472415
-0.12536961 -0.11229069 0.6833334
-0.11707071 -0.1116 0.68450016
0.051989388 -0.11015186 0.68866664
0.067901298 -0.11093216 0.68799996
0.07099016 -0.11155747 0.68200004
-0.12945347 -0.1098614 0.68000001
-0.11427296 -0.10526424 0.68471432
0.045335386 -0.10451131 0.68320829
0.054825421 -0.10545474 0.68301874
0.064118423 -0.10672486 0.68314284
0.070064701 -0.1089256 0.68100005
-0.16270471 -0.092172481 0.68700004
-0.15817364 -0.090270102 0.68100005
-0.12179516 -0.091019481 0.68500006
-0.11659185 -0.096238874 0.68600011
0.043083884 -0.095829643 0.68321431
-0.15501256 -0.08797098 0.68515795
-0.14506502 -0.086861119 0.68510532
-0.13500743 -0.086067401 0.68426675
-0.12685841 -0.08759591 0.68413335
0.047786005 -0.088223472 0.68500006
0.055197198 -0.084040098 0.68429166
0.065029971 -0.082066536 0.68442309
0.074715734 -0.082574882 0.68438095
0.085100338 -0.084514774 0.68511766
0.090754986 -0.088633634 0.68533331
-0.052224405 -0.17112719 0.6908462
-0.044686388 -0.17263801 0.69243908
-0.034752641 -0.17224036 0.69239539
-0.025742 -0.17139527 0.69014305
0.078217372 -0.17096284 0.69000006
-0.15236014 -0.16155908 0.6918
-0.14570811 -0.16107219 0.69050002
-0.13691621 -0.16039993 0.69000006
-0.063559793 -0.16643645 0.69025016
-0.055481452 -0.1687495 0.69123822
-0.032675695 -0.16937687 0.69566673
-0.024915516 -0.16889323 0.69076478
-0.012582555 -0.16797629 0.69016677
-0.0061871572 -0.16628255 0.69058341
0.0050411401 -0.16315836 0.69227785
0.013234283 -0.16109732 0.69300002
0.078995638 -0.16885024 0.69000006
0.082346924 -0.1638944 0.69000012
-0.15240857 -0.15789758 0.69659096
-0.14490139 -0.15668246 0.69552964
-0.13499428 -0.15666103 0.6949268
-0.12501329 -0.15525195 0.6946165
-0.1149436 -0.15502803 0.69453537
-0.10570607 -0.15759595 0.69382989
-0.097994 -0.15818276 0.69150001
0.02822022 -0.15873782 0.69083333
0.035996743 -0.15786797 0.69392312
0.045156732 -0.15521385 0.69416928
0.05480608 -0.15440473 0.69427109
0.064996235 -0.15461633 0.69391477
0.075109318 -0.15441328 0.69390929
0.082121275 -0.15591638 0.69421875
-0.15604766 -0.13085958 0.69850004
-0.15241298 -0.12810759 0.69350004
-0.14527474 -0.12321107 0.69543755
-0.13982837 -0.12081578 0.69900006
0.076955996 -0.12232007 0.69657141
0.08406353 -0.12369207 0.69435722
-0.14128233 -0.11873452 0.6923334
-0.13557565 -0.1176241 0.69484216
-0.12477921 -0.11635888 0.69452935
-0.1157727 -0.11344584 0.69480008
0.047199018 -0.11138999 0.69500005
0.055434022 -0.11173689 0.69407147
0.064946607 -0.11243843 0.69484216
0.070486501 -0.11525188 0.69599998
-0.11362009 -0.10480906 0.69372231
0.039514638 -0.10222728 0.69514281
0.042197242 -0.10707378 0.69188893
-0.16622742 -0.092364945 0.69500005
-0.12144385 -0.091338694 0.69499999
-0.11650553 -0.095998786 0.69531584
0.039253838 -0.099414416 0.69900006
0.042776685 -0.094089612 0.6940667
0.093632028 -0.090744048 0.69300002
-0.16386884 -0.084874168 0.6974054
-0.15482071 -0.084063016 0.69678849
-0.14526036 -0.083059773 0.69562066
-0.13484077 -0.082498327 0.6951133
-0.12653041 -0.084199645 0.69691467
0.047269352 -0.087211601 0.69599998
0.055256095 -0.082434647 0.69514817
0.064179145 -0.080688789 0.69223076
0.075931549 -0.081280187 0.69452631
0.085243165 -0.082903795 0.69470012
0.092256866 -0.087289333 0.6949231
-0.050008658 -0.17135179 0.70300001
-0.04444176 -0.17188835 0.70321429
-0.03780951 -0.17127723 0.70322227
-0.15931705 -0.16172133 0.70550001
-0.034053024 -0.16973469 0.70100003
0.0039334772 -0.16516896 0.70660007
0.015780028 -0.16435181 0.70700002
-0.15406895 -0.1544141 0.70390624
-0.14510176 -0.15170431 0.70120698
-0.13498375 -0.15186965 0.70106906
-0.12538683 -0.1509227 0.70057148
-0.11369321 -0.15102927 0.70157152
-0.10753424 -0.15426807 0.70377266
0.03826331 -0.15474033 0.70336366
0.043702289 -0.15115003 0.70191669
0.056454293 -0.15031658 0.70000005
0.065252028 -0.15031658 0.70000005
0.074867241 -0.15037027 0.70025009
0.084413782 -0.15271884 0.70327276
-0.15177469 -0.14582482 0.70787495
-0.14546958 -0.1467001 0.70627421
-0.13523637 -0.14771587 0.7055999
-0.12511645 -0.14807276 0.70495337
-0.11591934 -0.14874096 0.70553583
0.04641806 -0.14753641 0.70607305
0.054929867 -0.14685088 0.7050668
0.064722769 -0.1472723 0.70520014
0.074911684 -0.14739278 0.70518869
0.082618788 -0.14808506 0.70600009
-0.15329416 -0.13472728 0.70709991
-0.14845002 -0.13363545 0.70866656
0.083227225 -0.1305417 0.70900005
-0.15039417 -0.12906873 0.70100003
-0.14463857 -0.12630482 0.70466667
-0.13586617 -0.12175498 0.70475012
-0.12790035 -0.1211962 0.70780003
-0.11995344 -0.12008957 0.708
0.076129742 -0.12471136 0.70616674
0.084637202 -0.1275786 0.70488888
0.091224134 -0.12597169 0.70900005
-0.12478243 -0.11926033 0.70311117
-0.11522032 -0.1152324 0.70466667
0.045944683 -0.11382005 0.70450002
0.055136852 -0.11538047 0.70382357
0.064963743 -0.11637355 0.70505559
0.070729509 -0.11884388 0.70400006
-0.11296341 -0.10516176 0.70355564
0.038172405 -0.10349535 0.70508337
-0.16899979 -0.09148711 0.70039999
-0.12063278 -0.090791315 0.70200002
0.041676588 -0.092881978 0.70389479
0.096936405 -0.091725521 0.70483333
-0.044232924 -0.17331824 0.71580005
-0.03912136 -0.17215601 0.71100003
-0.16284187 -0.16529019 0.71600002
-0.10299336 -0.16089949 0.71700001
0.0067796307 -0.16714136 0.71900004
0.033239849 -0.16045067 0.71500003
-0.16054678 -0.15838337 0.71350002
-0.15765709 -0.15354031 0.71289998
-0.10727222 -0.15477112 0.71382362
0.037266031 -0.15508065 0.71390915
0.088175215 -0.15295914 0.71411109
-0.16067146 -0.14229397 0.71833342
-0.15647121 -0.14464162 0.71356255
-0.14388746 -0.1422573 0.71177149
-0.13527825 -0.14317574 0.71421278
-0.12544614 -0.14557368 0.71425933
-0.11523572 -0.14755712 0.71441674
0.039218452 -0.14976214 0.71900004
0.044554643 -0.14469838 0.71397573
0.055007361 -0.14227194 0.7134167
0.065152183 -0.14237158 0.71312761
0.074869648 -0.1425471 0.71219534
0.084212638 -0.14415905 0.71408898
-0.16232665 -0.1360486 0.71541667
-0.15706162 -0.1379932 0.71158338
-0.14414431 -0.13570113 0.71285731
-0.13829963 -0.13510488 0.71728569
0.067906879 -0.13823904 0.71773332
0.074655451 -0.13533449 0.71599984
0.08403565 -0.13512823 0.71387035
0.090645954 -0.13220039 0.71800005
-0.14203814 -0.12865466 0.7112
-0.1361068 -0.12619369 0.71407408
-0.12472718 -0.12297805 0.7143572
-0.11789832 -0.12130543 0.71516675
0.055427309 -0.12077274 0.71885717
0.065464184 -0.12119541 0.71699995
0.073196746 -0.12673698 0.71454054
0.088044554 -0.12976421 0.71100003
0.091900043 -0.12805706 0.71424997
-0.11314274 -0.11503457 0.71482617
0.038283002 -0.11150264 0.71512496
0.044758324 -0.11651512 0.71500003
0.055017896 -0.1187322 0.71355563
0.064251281 -0.11896641 0.71237504
-0.046642099 -0.17457734 0.72100002
-0.16570354 -0.16057451 0.72600007
0.0033224127 -0.16839667 0.72440004
0.03308779 -0.161649 0.72425002
-0.16327816 -0.1542826 0.72490919
-0.10892794 -0.15315352 0.72316676
0.037528154 -0.15384798 0.72366667
0.09156549 -0.153835 0.72561544
-0.16466539 -0.14472429 0.72457695
-0.13205786 -0.14167297 0.72356248
-0.12534341 -0.14427999 0.72432148
-0.11586518 -0.14669631 0.72390914
0.039120279 -0.14799297 0.72525007
0.044290654 -0.14245793 0.72430015
0.054813076 -0.14055362 0.72247064
0.06015553 -0.14068861 0.72000003
0.089060999 -0.14366496 0.72233337
0.09145648 -0.1454262 0.72736365
-0.18512279 -0.13201936 0.72785002
-0.17200807 -0.13727747 0.72828579
-0.16613387 -0.13797191 0.72314292
-0.13373521 -0.13511249 0.72433335
0.048507094 -0.13990559 0.72800004
0.05540356 -0.13973062 0.72770011
0.065213941 -0.13521521 0.72385007
0.088769287 -0.13801906 0.72060001
0.09269806 -0.13480754 0.72470593
-0.13301243 -0.12835817 0.72358841
-0.1247004 -0.12600887 0.72341675
0.045668807 -0.12163896 0.72586668
0.055379961 -0.12335899 0.72578573
0.065809473 -0.12599875 0.72411633
0.094581448 -0.12884642 0.72300005
0.042798195 -0.11863999 0.72280002
-0.046133783 -0.17590088 0.73133332
-0.03796969 -0.17630173 0.73300004
-0.00017464657 -0.17016339 0.73200005
0.0021992261 -0.17013809 0.73700005
-0.17022368 -0.16085508 0.73800004
-0.16907041 -0.16212548 0.73299998
-0.10683592 -0.16208598 0.73550004
0.003963517 -0.16944554 0.73400003
0.026990129 -0.16567115 0.73300004
0.033655867 -0.16234238 0.73400003
-0.1713137 -0.15360811 0.73860008
-0.16775323 -0.15474215 0.73368752
-0.11060932 -0.15117855 0.73433334
-0.10890886 -0.15576194 0.7355001
0.036212184 -0.15362424 0.73500001
0.094136156 -0.1551789 0.73366672
-0.17482635 -0.14426008 0.73566675
-0.16845123 -0.14758508 0.73116666
-0.13073833 -0.14028995 0.73000002
-0.12445238 -0.14196159 0.73351282
-0.11480422 -0.14448656 0.73624188
0.037890501 -0.1449692 0.73526675
0.042013239 -0.14095373 0.73290914
0.093809277 -0.14430058 0.73409098
-0.13076392 -0.13561156 0.73014289
0.061576847 -0.13351651 0.73291677
0.097383156 -0.13500768 0.73520005
-0.061646581 -0.17990956 0.74800003
-0.05306536 -0.1794285 0.74599999
-0.044812907 -0.17727076 0.74200004
-0.0025612887 -0.17202312 0.74000001
-0.17514259 -0.16359574 0.74627781
-0.10733628 -0.16217518 0.74485719
0.02831926 -0.1681072 0.74733335
0.032742031 -0.16261789 0.74573332
0.095542282 -0.16252558 0.74566668
-0.17556359 -0.15538792 0.74377269
0.032717664 -0.15513319 0.745
0.09764383 -0.15366367 0.74579996
-0.17629042 -0.18010913 0.75900006
-0.056840811 -0.18128312 0.75625002
-0.046654388 -0.18010913 0.75900006
-0.1780225 -0.17459889 0.75505883
-0.0470047 -0.17976585 0.755
-0.00099390326 -0.17385107 0.75749999
0.005131783 -0.17218269 0.75600004
0.015123434 -0.17261398 0.75800008
0.022169743 -0.17107718 0.75800002
0.03026784 -0.16345002 0.75083333
0.098225586 -0.16417572 0.75489998
0.030033056 -0.15924062 0.75000006
-0.055159435 -0.18089443 0.76288891
