# .PCD v0.7 - Point Cloud Data file format
VERSION 0.7
FIELDS x y z
SIZE 4 4 4
TYPE F F F
COUNT 1 1 1
WIDTH 463
HEIGHT 1
VIEWPOINT 0 0 0 1 0 0 0
POINTS 463
DATA ascii
0.0070393574 -0.02137105 0.59877777
0.012260759 -0.021407174 0.59871429
0.007153559 -0.015554068 0.59747356
0.012346174 -0.015489474 0.59808326
0.2390531 -0.012645651 0.59876925
0.24440826 -0.013231992 0.59828562
0.0080610523 -0.0099029755 0.59900004
0.010473983 -0.0099029755 0.59900004
0.23921989 -0.0099029755 0.59900004
0.24535146 -0.0091031836 0.59857136
0.055787977 -0.11114825 0.60900003
0.045645051 -0.10380649 0.60776085
0.055107713 -0.10417137 0.6074301
0.061933953 -0.10285985 0.60819238
0.1956303 -0.10327134 0.60769695
0.20481628 -0.10447631 0.60680234
0.21301545 -0.10435008 0.60695755
0.047095776 -0.09825588 0.6077587
0.054879948 -0.098636359 0.60831815
0.062128358 -0.098820075 0.60862505
0.18924282 -0.09888126 0.60900003
0.19553818 -0.09741798 0.60723335
0.20508032 -0.096277952 0.60624158
0.21326543 -0.096947283 0.60665965
0.0073563396 -0.031860415 0.60600001
0.01463943 -0.032475255 0.60630459
0.24419482 -0.030676832 0.60900003
0.0070748017 -0.026357036 0.60197681
0.015116085 -0.025512516 0.60371625
0.23809725 -0.023491979 0.60708332
0.24439801 -0.024925124 0.60593247
0.017264003 -0.014960489 0.60381132
0.021324003 -0.011439037 0.60791665
0.23600012 -0.015044848 0.60424483
0.2441806 -0.018150492 0.60081083
0.0071076686 -0.0064175804 0.60474998
0.014964078 -0.0069819512 0.6047647
0.02178992 -0.0073293531 0.6080001
0.23656207 -0.0065305056 0.60565746
0.24372621 -0.0052531217 0.60488236
0.25038964 -0.0070774313 0.60500002
0.038484506 -0.1110317 0.61160004
0.045603462 -0.1124083 0.61061555
0.055693164 -0.1128222 0.61000025
0.063603491 -0.11251509 0.61124998
0.070096798 -0.11008197 0.61400002
0.18678866 -0.11069056 0.61484617
0.19576387 -0.11155863 0.61162078
0.20537336 -0.11160636 0.61036372
0.21102221 -0.11109462 0.61050004
0.036198154 -0.10403673 0.61356753
0.043171354 -0.1070122 0.61019999
0.056019999 -0.10936482 0.61000007
0.066139154 -0.10559104 0.61150753
0.074650228 -0.10453971 0.61654323
0.080641605 -0.10050493 0.61900002
0.17938407 -0.10000619 0.61900002
0.18521754 -0.10490364 0.61578804
0.19306849 -0.10740045 0.61102277
0.20517069 -0.1092556 0.61000007
0.21166873 -0.10936482 0.61000001
0.036417685 -0.095224544 0.61716014
0.044355061 -0.094237104 0.61330312
0.055084083 -0.094201803 0.61432976
0.065178171 -0.094678529 0.61294264
0.075004831 -0.094830982 0.6153726
0.082653515 -0.094113149 0.61828887
0.17785412 -0.093765058 0.61862499
0.1849304 -0.095177718 0.61500806
0.19458282 -0.092851467 0.61328363
0.20457233 -0.091454253 0.6121667
0.2157414 -0.092648014 0.61219525
0.22132474 -0.093254462 0.61699998
0.037161633 -0.088890046 0.61838889
0.045160878 -0.088889085 0.61800015
0.055169526 -0.088971086 0.61856675
0.065420702 -0.088646166 0.61794108
0.07478749 -0.08842402 0.61768413
0.081241131 -0.089127779 0.61849999
0.17888537 -0.089033991 0.61900002
0.18480425 -0.088949271 0.61819375
0.19471918 -0.089297704 0.61831814
0.20575102 -0.087882526 0.61686528
0.21477336 -0.087261006 0.61654228
0.22102547 -0.08753778 0.61900002
0.0072504175 -0.03444453 0.61200005
0.014693238 -0.034652539 0.61471426
0.020663291 -0.030976921 0.61500007
0.23858385 -0.030433768 0.61733335
0.2434864 -0.031482376 0.61129993
0.019544387 -0.027825767 0.61100006
0.022341741 -0.023422064 0.61508584
0.23516445 -0.024882058 0.6136719
0.24236785 -0.029752364 0.61016673
0.02533903 -0.014875347 0.61434531
0.035110436 -0.013673132 0.61637479
0.042896893 -0.013379378 0.61711895
0.22708045 -0.011702031 0.61851871
0.2321637 -0.014878388 0.61390489
0.0065906174 -0.002516374 0.61428577
0.015228459 -0.0021046312 0.61309355
0.025906943 -0.0044054901 0.61253935
0.034755792 -0.0051700915 0.61304426
0.041947413 -0.0065164291 0.61464298
0.21650697 -0.005058161 0.61844605
0.22563106 -0.0048935083 0.61652213
0.23307814 -0.0039237961 0.61170489
0.24555708 -0.0012843831 0.61260873
0.25239685 -0.004112632 0.61440003
0.22925401 0.00073857687 0.61900002
0.23433603 0.00073575671 0.61663646
0.24387711 0.0007360414 0.61687505
0.028116103 -0.10057597 0.62342864
0.030821383 -0.10016775 0.62
0.085131921 -0.10323653 0.62247181
0.09512642 -0.10245518 0.62641311
0.10475797 -0.10227368 0.62716705
0.114862 -0.10219191 0.62716693
0.12365896 -0.10124642 0.62745839
0.13502195 -0.10063494 0.62837505
0.14538097 -0.10171394 0.62899995
0.15613344 -0.10167246 0.62899995
0.16565192 -0.10264999 0.62760007
0.17525007 -0.10341024 0.62233776
0.18067288 -0.10466363 0.62
0.027253326 -0.095647939 0.62640387
0.031438015 -0.094372869 0.62151432
0.087040283 -0.095342517 0.62095362
0.094579101 -0.095149912 0.62552679
0.10460528 -0.096990302 0.62767327
0.11472841 -0.097839624 0.62815011
0.12514475 -0.097670987 0.62822235
0.13333519 -0.098132893 0.62829638
0.14427534 -0.09959463 0.62900001
0.1581582 -0.097045131 0.62862504
0.16515306 -0.094833203 0.62560928
0.17313293 -0.095274813 0.62119162
0.22609453 -0.092046931 0.62320006
0.23056348 -0.091340482 0.62800002
0.027163811 -0.08639285 0.62684101
0.034577057 -0.084808499 0.62469316
0.044919655 -0.084355541 0.62506223
0.055018801 -0.084316678 0.62464195
0.064922281 -0.083623469 0.62461883
0.075010613 -0.083522797 0.62486255
0.084695421 -0.086094402 0.62473136
0.091417387 -0.088364132 0.62842858
0.16780448 -0.087702848 0.62678796
0.17515363 -0.085169837 0.62448144
0.18501323 -0.083747141 0.6239444
0.1951786 -0.084021859 0.62360597
0.20441939 -0.083220154 0.62285149
0.21495537 -0.082471825 0.62204087
0.22504774 -0.084261268 0.62395781
0.23056348 -0.084761828 0.62800002
0.074343041 -0.079322882 0.62900001
0.18448514 -0.078853592 0.6285882
0.19464099 -0.079196766 0.62800008
0.20577343 -0.078807823 0.62760001
0.21481453 -0.078515045 0.62671804
0.22403321 -0.078667939 0.62768972
0.0094703529 -0.037735783 0.62849998
0.0225299 -0.030500032 0.62550002
0.23961449 -0.03123093 0.62
0.026550358 -0.024257015 0.6229251
0.0349617 -0.022904124 0.62413555
0.044425383 -0.022874733 0.62490571
0.20863335 -0.020534823 0.62900001
0.21319415 -0.020534823 0.62900001
0.22686008 -0.020930735 0.62756258
0.23239605 -0.023120234 0.62377775
0.029023167 -0.018842284 0.62
0.035333052 -0.018751688 0.62030005
0.04639598 -0.016177669 0.62256533
0.20721041 -0.014471801 0.62582606
0.21507992 -0.014638371 0.62358415
0.22476038 -0.015896674 0.62273568
0.23066127 -0.018939925 0.62099999
-0.00014864047 -0.004276244 0.62300003
0.0059753517 -0.00081842742 0.62244451
0.015086978 -0.00025931434 0.61999995
0.023328809 -0.00025931434 0.61999995
0.036550567 -0.00048197692 0.62111109
0.044580251 -0.0047680284 0.62464005
0.20833886 -0.0072754617 0.6245454
0.2130122 -0.0041220654 0.6216203
0.22263131 -0.00025931434 0.62
0.25577414 -0.0017141755 0.6236667
0.26032242 -0.0033038405 0.62900001
0.0075139692 0.0007471678 0.62620002
0.015305147 0.0011958076 0.62555552
0.025120465 0.0013230871 0.625
0.034133613 0.0011507568 0.62573338
0.21708626 0.0011155711 0.62654549
0.22489055 0.0013156985 0.62447828
0.23498517 0.0024099546 0.62384605
0.24484397 0.002689142 0.62424999
0.25248227 0.0019609716 0.62639999
0.14653496 -0.10076817 0.63000005
0.15497895 -0.10178337 0.63000005
0.1621002 -0.10449056 0.63000005
0.016811617 -0.092887983 0.63611114
0.022513764 -0.094037168 0.63141865
0.098199725 -0.091002524 0.63033342
0.10541783 -0.092305422 0.63228011
0.11501287 -0.093021579 0.63299996
0.12484068 -0.09281037 0.63262129
0.13555923 -0.093835443 0.63239485
0.14491893 -0.0948769 0.63271171
0.15432398 -0.094331875 0.63180417
0.16106406 -0.090905935 0.6302501
0.23323707 -0.091389142 0.63066673
0.016230859 -0.084489577 0.63627535
0.023238532 -0.08412952 0.63116962
0.034465048 -0.080579706 0.63018185
0.045022663 -0.080464192 0.63000005
0.055173896 -0.080464192 0.63000005
0.060757071 -0.080464192 0.63000005
0.079029284 -0.080464192 0.63000005
0.085983902 -0.081844576 0.6309312
0.095261142 -0.085096762 0.6334818
0.10474257 -0.08634419 0.63659418
0.1153069 -0.087056153 0.63674122
0.12522161 -0.086821407 0.63662696
0.13508534 -0.086510032 0.63760298
0.1449414 -0.086912967 0.63848341
0.15529539 -0.085192204 0.63767934
0.16419984 -0.084348008 0.63305378
0.17240223 -0.081052914 0.63027281
0.23552346 -0.084609702 0.63201821
0.24083357 -0.083123766 0.63480002
0.016533025 -0.07690531 0.63778567
0.025005946 -0.076144345 0.63599986
0.035141151 -0.075975381 0.63508934
0.045096334 -0.075539455 0.63529587
0.055072829 -0.075000383 0.63417941
0.064554878 -0.076529108 0.63131362
0.074625611 -0.07727468 0.63024384
0.084394425 -0.078511886 0.63190633
0.091528289 -0.079494655 0.63360006
0.15816005 -0.079172954 0.63800001
0.16597731 -0.077900581 0.63411105
0.17523737 -0.077015229 0.63134426
0.18516681 -0.075534835 0.63124996
0.19513966 -0.075841561 0.63411957
0.20517918 -0.074603356 0.6345396
0.21516354 -0.073419072 0.63461083
0.2251185 -0.073584124 0.63432115
0.23497134 -0.074713565 0.63446993
0.24270661 -0.073921546 0.63678569
0.056440584 -0.069213912 0.63860005
0.0068425206 -0.03849877 0.63550013
0.24438551 -0.033883195 0.63700002
0.25004634 -0.035277113 0.63900006
0.027316341 -0.028071361 0.63388896
0.035123058 -0.027368907 0.63464993
0.045819242 -0.026716968 0.63339132
0.051325858 -0.023239959 0.63640004
0.20754051 -0.022415623 0.63347834
0.2150926 -0.022911517 0.63386101
0.22507896 -0.022981195 0.6340571
0.2334806 -0.025759185 0.63525003
0.049708791 -0.010948688 0.63150001
0.051411111 -0.015726179 0.63476473
0.20517492 -0.015214665 0.63335001
-0.00015221928 -0.0012949329 0.63800001
0.0012119003 -0.00094196899 0.634
0.047255743 -0.0038142842 0.63433337
0.050537411 -0.0084876642 0.6376667
0.20692122 -0.0069244588 0.63352388
0.21124235 -0.0023084462 0.63320005
0.25870606 -0.00026349686 0.63000005
0.26130944 -0.0020461681 0.63200003
0.0065075001 0.002170698 0.63593745
0.014471116 0.0031827958 0.63586384
0.024810972 0.0035437541 0.633591
0.034950599 0.0034438737 0.6344583
0.042216968 0.0014764832 0.63510007
0.21654053 0.0027114381 0.63450009
0.22466937 0.0038593821 0.63360709
0.23546608 0.0047459258 0.63505274
0.2451046 0.005413183 0.63475007
0.2547704 0.004342725 0.63475007
0.26034865 0.0007564745 0.634
0.011545766 -0.091346845 0.64066672
0.011447982 -0.085968263 0.64048272
0.14660509 -0.083352834 0.64000005
0.1509234 -0.082257062 0.64000005
0.0081236372 -0.076227397 0.64213639
0.013526873 -0.073624596 0.64118963
0.024911817 -0.071043886 0.64052379
0.034688484 -0.07092756 0.64041179
0.044706073 -0.07039696 0.63999999
0.050893489 -0.07039696 0.64000005
0.19677219 -0.071778186 0.64231813
0.20379277 -0.070947185 0.64058828
0.21073508 -0.07039696 0.64000005
0.24553931 -0.07039696 0.64000005
0.0090248287 -0.068496309 0.64740002
0.015204598 -0.067901701 0.64650989
0.025090637 -0.067463972 0.64575452
0.035099909 -0.066915654 0.64533341
0.04497648 -0.066811785 0.64485514
0.053390943 -0.067668699 0.64319992
0.19954243 -0.069440059 0.64550006
0.20560609 -0.067599401 0.64488894
0.21496311 -0.066708095 0.64430028
0.22520593 -0.066466324 0.64391679
0.23504969 -0.06601882 0.6437341
0.24403442 -0.066155843 0.644238
0.008011735 -0.041280065 0.64700001
0.011328947 -0.041506551 0.64783341
0.006393027 -0.039234955 0.64200002
0.011302181 -0.039848033 0.64633334
0.025591576 -0.031577934 0.64372724
0.0349245 -0.03055295 0.64800006
0.044422597 -0.030511696 0.64712501
0.23844464 -0.030706594 0.6463334
0.24482645 -0.034989808 0.64557141
0.25173917 -0.036856055 0.64866668
0.028783364 -0.029205158 0.6413334
0.035067778 -0.029281054 0.64300001
0.044806607 -0.029208193 0.64139998
0.053265158 -0.025175028 0.6453684
0.20759143 -0.023870308 0.64436364
0.21551035 -0.026489653 0.64377266
0.2253152 -0.02641269 0.64407402
0.23364376 -0.028142355 0.64423084
0.053915009 -0.015340856 0.6438235
0.2058882 -0.015482153 0.64366668
0.048921891 -0.0013031113 0.64214283
0.051945053 -0.004968558 0.64552176
0.20761077 -0.0046329708 0.64505005
0.21120924 -0.0015677747 0.64499998
0.2678203 -0.0019314194 0.64410007
0.27027416 -0.0034036383 0.648
0.21611466 0.0056209993 0.64607704
0.22498654 0.0074820393 0.6441952
0.23477884 0.0075932802 0.6441716
0.2450448 0.0080339294 0.6439091
0.25521803 0.007939091 0.64300001
0.26538455 0.0057254266 0.64612287
0.19801335 -0.071172893 0.65280002
0.0071042115 -0.063608751 0.65449995
0.014868937 -0.062813722 0.65261018
0.025113361 -0.062391646 0.65342236
0.034682918 -0.062100604 0.6529302
0.044966944 -0.061809082 0.65327018
0.05266881 -0.064481311 0.65324998
0.19975899 -0.069722377 0.65300006
0.2054528 -0.063360713 0.6536079
0.21491733 -0.061748259 0.6518684
0.22469588 -0.061575219 0.65167558
0.23467501 -0.061091274 0.65114307
0.24559475 -0.061502524 0.65199995
0.25191948 -0.063708924 0.65614289
0.007615291 -0.055233777 0.6578207
0.013695757 -0.056053285 0.65782762
0.024506658 -0.059417784 0.65833336
0.031167373 -0.059743706 0.65900004
0.042825524 -0.059713487 0.65866667
0.20792821 -0.05922123 0.65762508
0.21517137 -0.058965616 0.65685004
0.22540909 -0.058138601 0.65688902
0.23538662 -0.057085093 0.65607417
0.24383916 -0.055373218 0.65700012
0.25005955 -0.059653051 0.65800005
0.0064642038 -0.045690902 0.65373343
0.014027511 -0.045056269 0.65563166
0.23887812 -0.041918129 0.65799999
0.24455346 -0.044099148 0.65531331
0.25147194 -0.041899279 0.65560007
0.026347619 -0.03375287 0.65392309
0.034467719 -0.031741012 0.6540001
0.045020524 -0.032469582 0.6556471
0.051502384 -0.031112716 0.65425003
0.21539851 -0.030009666 0.65900004
0.22753945 -0.031182887 0.65814286
0.23571955 -0.034467794 0.65500003
0.24264185 -0.036967203 0.65157884
0.25246945 -0.038623471 0.65380001
0.056215744 -0.02471382 0.65700006
0.20725156 -0.022867789 0.65377784
0.21559066 -0.028860796 0.65380001
0.22507529 -0.029220784 0.65320003
0.23131597 -0.02966813 0.65150005
0.057525471 -0.014484323 0.65545154
0.20624493 -0.014663267 0.65543753
0.27610469 -0.0044566933 0.65389091
0.20189224 -0.070142366 0.66700006
0.0035799872 -0.064415 0.66324997
0.048909556 -0.060015682 0.66200006
0.05363014 -0.063184105 0.66541672
0.20370723 -0.062295843 0.66358334
0.25598863 -0.062260341 0.66700006
0.0043257596 -0.05470968 0.66300011
0.016945465 -0.05342418 0.66084844
0.02465922 -0.054930456 0.6639092
0.034941368 -0.058743671 0.6643104
0.044811044 -0.058557332 0.6651668
0.050429199 -0.059483197 0.66800004
0.20710416 -0.058048811 0.66452378
0.21523051 -0.056853138 0.66373336
0.22569023 -0.054305863 0.66411757
0.2346313 -0.052379481 0.66210204
0.24523309 -0.052461565 0.66011763
0.25211546 -0.054964676 0.66544449
-0.00015949622 -0.040676452 0.66850007
0.0014114397 -0.045165934 0.66526675
0.018460212 -0.045628037 0.66024995
0.023745155 -0.044968713 0.66474986
0.22918868 -0.049544428 0.66825008
0.23475067 -0.045333669 0.66445982
0.24180198 -0.048151799 0.66022229
0.25481826 -0.045338128 0.66439134
0.26031798 -0.04118384 0.66800004
0.00091285759 -0.039927281 0.66500002
0.025970789 -0.037726838 0.66396779
0.034882486 -0.034258019 0.66436845
0.04489056 -0.034338113 0.66427273
0.054715708 -0.032592017 0.66523814
0.21690224 -0.03104811 0.66416669
0.226144 -0.033742808 0.66445005
0.23256448 -0.037561525 0.66302633
0.25827429 -0.039490569 0.66366667
0.26139432 -0.038493562 0.66800004
0.21170752 -0.028733214 0.6645714
0.2025651 -0.072145239 0.67825007
0.0017000543 -0.064813718 0.67385715
0.055863515 -0.062903397 0.67466664
0.20423567 -0.063792787 0.67260003
0.2591415 -0.06104153 0.67333341
0.26226732 -0.06386935 0.67700005
-0.0013089117 -0.05318737 0.67690003
0.0012168962 -0.055411335 0.67199999
0.028807377 -0.051516514 0.67080003
0.034217816 -0.054630995 0.67460418
0.044959579 -0.056116249 0.67503047
0.052232709 -0.058045197 0.67553341
0.20701487 -0.057025798 0.67460012
0.21504256 -0.05455536 0.67409998
0.2244115 -0.052180346 0.67416131
0.25722927 -0.054675873 0.67319053
0.2609916 -0.053789776 0.67766672
0.028556908 -0.046061035 0.67071426
0.22755413 -0.044513773 0.6751563
0.23050097 -0.044039126 0.67050004
0.25794753 -0.048049573 0.67116672
0.26349282 -0.044188414 0.67500007
0.22450282 -0.037229497 0.67432004
0.26644376 -0.038915869 0.67533332
-0.00016414869 -0.070133418 0.68800002
0.20470819 -0.071677215 0.68580002
0.00093893922 -0.069725677 0.68400002
0.05849044 -0.062543824 0.68327278
0.20505488 -0.064667962 0.68474996
0.26734567 -0.064073108 0.68557894
0.21449721 -0.051817559 0.68309093
0.22221528 -0.051437341 0.68200004
0.26622927 -0.055278122 0.68492496
0.00094854826 -0.084914684 0.69100004
0.20473652 -0.072031453 0.69562501
0.2745989 -0.071118541 0.69766665
