# .PCD v0.7 - Point Cloud Data file format
VERSION 0.7
FIELDS x y z
SIZE 4 4 4
TYPE F F F
COUNT 1 1 1
WIDTH 437
HEIGHT 1
VIEWPOINT 0 0 0 1 0 0 0
POINTS 437
DATA ascii
-0.029093226 -0.11016689 0.60900003
-0.032527726 -0.10820416 0.60900009
-0.029093226 -0.10771349 0.60900003
-0.073782608 -0.032336246 0.60803217
-0.068244234 -0.031823918 0.60840011
-0.073867738 -0.02467672 0.60467905
-0.066072583 -0.024909662 0.60574365
-0.074685365 -0.016902952 0.60591578
-0.066926733 -0.017581632 0.60700011
-0.041607771 -0.12070284 0.61266673
-0.035514787 -0.12112428 0.61313337
-0.024409872 -0.12080598 0.61470002
-0.019998265 -0.12036692 0.61600006
0.11683293 -0.12109563 0.61900002
0.12352974 -0.12095314 0.61900002
-0.043615978 -0.1145006 0.61132866
-0.035111502 -0.11501482 0.61126989
-0.025326729 -0.11515918 0.61228389
-0.016272565 -0.11423649 0.61623287
0.10685697 -0.11352091 0.61802268
0.11502141 -0.11493018 0.61693352
0.12491459 -0.11523084 0.61703193
0.13125442 -0.11577027 0.61814815
-0.050682556 -0.10798597 0.61900002
-0.044595454 -0.10540321 0.61463165
-0.035377435 -0.10402679 0.61211216
-0.024983361 -0.10500958 0.61334038
-0.015255688 -0.1054394 0.61699039
-0.0091242744 -0.1054923 0.61900002
0.10498779 -0.10812456 0.61826819
0.1148994 -0.10824977 0.61746311
0.12456449 -0.10832932 0.61780548
0.13051154 -0.10998093 0.61900002
-0.043185636 -0.098902173 0.61756265
-0.03623955 -0.098837845 0.6174401
-0.072911605 -0.040131867 0.61860001
-0.069852561 -0.040092938 0.61800003
0.16508803 -0.040157814 0.61900002
-0.073171228 -0.036804747 0.61145467
-0.065649822 -0.034657974 0.61367863
0.15806185 -0.033719063 0.61774999
0.1648909 -0.034996964 0.61638033
0.1702863 -0.034830965 0.61640006
-0.061541699 -0.025563411 0.61235487
-0.058991704 -0.023799494 0.61725003
0.15733521 -0.024816858 0.61642855
0.16480562 -0.025131285 0.6133852
0.17041513 -0.024984466 0.61400002
-0.072215766 -0.011650681 0.61326665
-0.06410972 -0.013821206 0.6132949
-0.058640659 -0.014457796 0.61776465
0.1609322 -0.019210882 0.61900002
-0.061487705 -0.0092361523 0.61900002
0.097919889 -0.12156746 0.62670594
0.10526475 -0.12247175 0.62277788
0.11509248 -0.12325874 0.62007344
0.12512431 -0.1234666 0.62035018
0.13105538 -0.12148156 0.62
-0.010540899 -0.11299286 0.62019998
-0.0052401228 -0.11211799 0.62382495
0.0016739744 -0.11111431 0.62880003
0.095995083 -0.11470529 0.62645119
0.10317288 -0.11635283 0.62166053
0.13430019 -0.11097877 0.62309092
-0.052708331 -0.10399346 0.6238479
-0.048754483 -0.10185246 0.62037504
-0.024024563 -0.10065516 0.62047058
-0.013335945 -0.10111101 0.62006658
-0.0045898259 -0.10488537 0.62272817
0.0034766214 -0.10481618 0.62768346
0.088744648 -0.10301543 0.62822729
0.095160238 -0.10482579 0.62400907
0.10506269 -0.10321191 0.62356144
0.11515826 -0.10428748 0.62487316
0.12516737 -0.10350269 0.62410706
0.13315865 -0.10496348 0.62523216
-0.0524102 -0.095639721 0.62714297
-0.045121115 -0.094327904 0.62451571
-0.034788381 -0.094750986 0.62472951
-0.024898332 -0.096139982 0.62576169
-0.014870742 -0.096048705 0.62487346
-0.005064033 -0.097247384 0.62576938
0.0019872962 -0.098648846 0.62800002
0.089003168 -0.099301644 0.62874997
0.095302783 -0.098588564 0.62776667
0.10326148 -0.099040747 0.62816674
0.12755239 -0.09959463 0.62900001
0.1321132 -0.09959463 0.62900001
-0.072682768 -0.041567512 0.62519997
-0.067758285 -0.040945306 0.62422222
0.15785407 -0.043052468 0.62440002
0.16465612 -0.044832233 0.62165546
-0.062615208 -0.035251576 0.62290478
-0.059351891 -0.031383399 0.62700003
0.15424265 -0.035106957 0.6238001
-0.054937094 -0.024385758 0.62566173
-0.044816431 -0.024097871 0.62682712
-0.036595352 -0.024676794 0.62672305
0.1364879 -0.020636562 0.62866664
0.14637715 -0.022002751 0.6278649
0.15251791 -0.025202891 0.62368762
0.16832128 -0.020257324 0.62050003
0.17132621 -0.020317178 0.62233335
-0.073873043 -0.01029149 0.62250006
-0.053587656 -0.014905235 0.62207901
-0.044739809 -0.014793348 0.6218797
-0.037536867 -0.016037289 0.62464994
0.13554353 -0.016995039 0.6274513
0.14512087 -0.016989339 0.62678123
0.15501958 -0.016908441 0.62390333
0.16445881 -0.017245091 0.62387502
0.17123124 -0.018969502 0.62750006
-0.071403891 -0.008915565 0.62460005
-0.065345317 -0.0087517295 0.62411112
-0.054910719 -0.0088009778 0.62360007
-0.045738485 -0.0085894968 0.62573922
-0.039677028 -0.0093853641 0.62900001
0.0059455428 -0.11170965 0.6304118
0.014499857 -0.11196104 0.63219059
0.024538638 -0.1117913 0.63275677
0.035628572 -0.11199377 0.63262492
0.045374766 -0.11264318 0.63364732
0.054720644 -0.11302141 0.63479191
0.064454608 -0.11209273 0.63500017
0.075589612 -0.11262973 0.63428289
0.085316136 -0.11334869 0.63231254
0.091127716 -0.11557858 0.63009536
0.13925232 -0.11067504 0.63150001
0.14100195 -0.11034109 0.63250005
-0.062368721 -0.1018663 0.63687503
-0.057967294 -0.10154833 0.63170004
0.0078130737 -0.10516371 0.63045174
0.014642699 -0.10481476 0.63301003
0.025027201 -0.10479368 0.63483018
0.035141047 -0.10477943 0.63563293
0.044945963 -0.10521708 0.63580376
0.054695033 -0.10613117 0.63660759
0.065274127 -0.1065468 0.63687181
0.075092651 -0.10509887 0.63603848
0.084057607 -0.10527073 0.63197494
0.090195641 -0.10990495 0.63000005
0.11510056 -0.10117887 0.63018757
0.12064934 -0.10076817 0.63000005
0.13832058 -0.10433936 0.63137043
0.14347968 -0.10451129 0.63604081
-0.073667668 -0.091292873 0.63900006
-0.063795023 -0.094315358 0.63637882
-0.056943204 -0.094222352 0.63108695
-0.049891338 -0.090616181 0.63000005
-0.034032192 -0.090839982 0.63027281
-0.024855928 -0.091334134 0.63050008
-0.014069131 -0.091261715 0.63096166
-0.0042828661 -0.092367962 0.63279986
0.0051114573 -0.094975062 0.63506979
0.014316374 -0.097070232 0.63771886
0.02201586 -0.099234723 0.63854545
0.076211885 -0.094972052 0.63777518
0.085101627 -0.095097765 0.63471729
0.094785608 -0.093871601 0.63413751
0.10502631 -0.094984047 0.63439071
0.11496821 -0.09586259 0.63450009
0.1248754 -0.09608195 0.63382363
0.13486104 -0.096042752 0.63464874
0.14293423 -0.097222224 0.63750005
-0.073893838 -0.085664108 0.63859421
-0.06473653 -0.086199299 0.63750744
-0.054906063 -0.086652592 0.63516659
-0.044991303 -0.086619839 0.6343686
-0.035004314 -0.087026767 0.63494444
-0.024870133 -0.085881814 0.63593841
-0.015421647 -0.085653186 0.63576037
-0.0051024226 -0.087346941 0.63692296
0.0030005968 -0.088868365 0.63887501
0.077683516 -0.089227915 0.63700002
0.084928215 -0.088303663 0.63839489
0.094117314 -0.088043906 0.63847375
-0.021562159 -0.079117492 0.63880002
-0.019185895 -0.079492033 0.63850003
0.16210531 -0.050272822 0.63333338
-0.072603181 -0.04403482 0.63585716
-0.066476278 -0.041753687 0.63575006
0.15588728 -0.044231046 0.63396007
0.16049348 -0.049070798 0.63100004
-0.061799947 -0.036480438 0.63381821
-0.054914538 -0.032727476 0.63426834
-0.044924714 -0.032463714 0.63343257
-0.035936579 -0.032166019 0.63300008
0.12626573 -0.032799259 0.63786483
0.13495724 -0.03314935 0.63764572
0.14604053 -0.033648998 0.63617188
0.15107879 -0.036166001 0.63211995
-0.052851476 -0.028478997 0.63033348
-0.04654156 -0.029073009 0.6302107
-0.033018686 -0.02598759 0.63341665
0.12712312 -0.025467327 0.63497019
0.13485391 -0.025584446 0.63262522
0.14446132 -0.026858024 0.63254911
0.15014745 -0.028193247 0.6302501
-0.035226006 -0.015039299 0.63408339
0.12890515 -0.018484371 0.63475001
0.13458385 -0.014149909 0.63388574
0.14499059 -0.012478976 0.63371432
0.15478325 -0.012900428 0.63431811
0.16481556 -0.013826286 0.63394451
0.1724465 -0.016706448 0.63760006
-0.072536312 -0.0068155592 0.63540006
-0.065025494 -0.006431472 0.63442868
-0.05487651 -0.0063915276 0.634
-0.044492353 -0.0066940286 0.63500005
-0.038890384 -0.0086272201 0.63550001
-0.070496365 -0.10061849 0.64200002
-0.067126743 -0.10161928 0.64085716
0.04715864 -0.10049714 0.64028579
0.055843305 -0.10137381 0.64048159
0.064726703 -0.10159363 0.64040649
0.071002595 -0.10030504 0.64000005
0.14863715 -0.10248366 0.64023077
0.15136865 -0.10158448 0.64157146
-0.072029948 -0.094598226 0.64040631
-0.068186864 -0.097139239 0.64027786
0.0086128097 -0.091023214 0.64000005
0.015315846 -0.092679568 0.63999999
0.025563674 -0.095622227 0.64091408
0.034837 -0.096159659 0.64072299
0.044943411 -0.096672744 0.64331424
0.055159688 -0.097061999 0.64395308
0.065324754 -0.096444227 0.64154673
0.071095414 -0.096466653 0.64029419
0.10754593 -0.090689197 0.64037502
0.11498348 -0.090627082 0.64085007
0.12521817 -0.091229051 0.64120692
0.13523096 -0.09127792 0.64155161
0.14582874 -0.093555868 0.64191389
0.15430284 -0.094649263 0.64480829
0.1604756 -0.091022529 0.64733338
-0.071450613 -0.082401738 0.64012504
-0.064958692 -0.081092387 0.64113355
-0.055233687 -0.081508256 0.64181596
-0.045065373 -0.081589527 0.64239037
-0.035081685 -0.081730224 0.64173323
-0.027552325 -0.081325084 0.64033335
0.0062925294 -0.088530876 0.63999999
0.011362773 -0.089648128 0.64000005
0.098567486 -0.086924627 0.64020002
0.10461391 -0.087739125 0.64295936
0.11515047 -0.088203609 0.64621055
0.12530133 -0.087989919 0.64650023
0.13502015 -0.087762505 0.64687502
0.14485358 -0.088240445 0.64709759
0.15478542 -0.088615634 0.64791173
0.16088878 -0.08864288 0.64900005
-0.073908232 -0.076828957 0.64571714
-0.065280661 -0.077446371 0.64621586
-0.054973561 -0.07783933 0.64668304
-0.044987015 -0.077951491 0.64708346
-0.034587886 -0.07736627 0.64673483
-0.026544835 -0.077305928 0.64282501
0.16093646 -0.050159533 0.64500004
-0.074801087 -0.045954783 0.64535713
-0.066119306 -0.042723957 0.64391667
0.13317673 -0.040012442 0.64900005
0.14801672 -0.040969688 0.64760005
0.15359524 -0.043299567 0.64452386
-0.061586805 -0.038767532 0.64350003
-0.055435624 -0.036598105 0.64483339
-0.044679552 -0.036005564 0.64441162
-0.035627015 -0.034845613 0.6450001
0.1250004 -0.035809316 0.64251363
0.13542582 -0.037878562 0.64230299
0.14418665 -0.038082015 0.64259464
-0.031420108 -0.024759853 0.64679992
0.12433477 -0.024334511 0.6440953
-0.034209084 -0.014747672 0.64541668
0.1279072 -0.017329516 0.64478952
0.13418977 -0.011946256 0.64424998
0.14500734 -0.010600647 0.64119995
0.15560046 -0.011134715 0.6422857
0.16538918 -0.011495207 0.64376485
0.17370436 -0.014821623 0.64506668
-0.081398599 -0.0083033284 0.64642859
-0.074898459 -0.0044561345 0.64577788
-0.064817689 -0.0032865137 0.64561296
-0.055147521 -0.0024828587 0.64557779
-0.045281995 -0.0040448518 0.64536679
-0.038197406 -0.0075534317 0.64588886
0.13864179 -0.009663891 0.64766669
0.145412 -0.0092181424 0.6466471
0.15330026 -0.0095173297 0.64785719
0.16402599 -0.009683785 0.64900005
0.10895912 -0.086056508 0.65240002
0.11594231 -0.084338769 0.6544401
0.124762 -0.083069734 0.65279359
0.13503395 -0.082783334 0.65252632
0.14513992 -0.083154194 0.65243548
0.15511037 -0.083623506 0.65319407
0.16105497 -0.08448942 0.6539287
-0.081030346 -0.074471407 0.65466672
-0.075115971 -0.07234975 0.65215385
-0.064571634 -0.072451182 0.65258491
-0.05501866 -0.072993822 0.65381289
-0.045029279 -0.072967105 0.65427548
-0.035962321 -0.072938226 0.6540001
-0.029135784 -0.073514476 0.65400004
0.11947798 -0.079566397 0.65900004
0.12533595 -0.078795515 0.65746152
0.1345153 -0.078824483 0.65725005
0.14519177 -0.078742065 0.65769237
0.15417811 -0.078989975 0.65809101
0.16018227 -0.079389408 0.65900004
-0.072940975 -0.068175763 0.65684617
-0.066244319 -0.068689778 0.6570769
-0.058028102 -0.069301076 0.65900004
-0.074509211 -0.050938096 0.65841669
0.15912521 -0.050911278 0.65466672
0.16271456 -0.052634232 0.65510005
-0.080717832 -0.046718489 0.65500003
-0.074484177 -0.048315525 0.65431249
-0.064873874 -0.04418584 0.65500009
-0.058188986 -0.040849093 0.65683335
0.12840365 -0.040717922 0.65399998
0.13569789 -0.041625459 0.65460002
0.14541358 -0.042642258 0.65411538
0.15408286 -0.046038385 0.65447831
-0.053907763 -0.038928516 0.65420014
-0.044908021 -0.038183745 0.65349996
-0.033760641 -0.035815515 0.65399998
-0.029798346 -0.03150665 0.65700001
0.12266732 -0.0340054 0.65433335
-0.030612748 -0.02495129 0.65180004
-0.029798344 -0.025151024 0.65700006
0.12358247 -0.023564013 0.6544348
0.12621935 -0.015933281 0.65584624
0.13155992 -0.01180096 0.65433335
0.16951548 -0.010746134 0.65000004
0.1763013 -0.012856999 0.6536001
0.18124528 -0.016168216 0.65760005
0.10921883 -0.086144984 0.66333336
0.11482021 -0.082335792 0.66277778
0.16393298 -0.082032047 0.66366667
-0.081885263 -0.072926849 0.66299999
-0.078853674 -0.070469782 0.66000003
-0.03247961 -0.071469165 0.66312498
0.11842039 -0.078584142 0.66366667
0.12482387 -0.075431958 0.66352928
0.1353312 -0.074913181 0.66415262
0.14514312 -0.074673526 0.66459
0.1553386 -0.074260801 0.66456741
0.16251111 -0.074929595 0.66548651
-0.081006914 -0.060650289 0.66900003
-0.075161099 -0.063575707 0.66312689
-0.064742684 -0.063764557 0.66384226
-0.055643294 -0.066507824 0.66375428
-0.044946942 -0.068169557 0.66397321
-0.037296399 -0.0686768 0.66383338
0.16261293 -0.060650289 0.66899997
-0.081294201 -0.053905971 0.6663751
-0.074830122 -0.055303205 0.66217369
-0.065881468 -0.055258889 0.66659737
0.15754899 -0.053053495 0.66612899
0.16273053 -0.056711558 0.66659385
-0.082900718 -0.048155911 0.66442859
-0.079917133 -0.049198952 0.66000003
-0.063584484 -0.047286566 0.66455263
-0.056046173 -0.04236389 0.66488892
-0.045238268 -0.041067384 0.66611111
-0.037593473 -0.040944211 0.66760004
0.12880982 -0.043271828 0.66700006
0.1348559 -0.043927215 0.66468751
0.14515367 -0.045665808 0.66439128
0.15310121 -0.048332542 0.66395658
-0.044822883 -0.039627079 0.66000003
-0.0338591 -0.038179912 0.66330779
-0.028901106 -0.032776106 0.66483343
0.122228 -0.032394394 0.6643334
0.11372741 -0.083476871 0.67244452
0.16775651 -0.081538998 0.67233342
0.17026289 -0.081132062 0.67800003
-0.084095165 -0.071685255 0.67650002
-0.032031611 -0.071050256 0.67050004
0.11884775 -0.077450097 0.67450005
0.12548654 -0.072021298 0.67425001
0.1346707 -0.071081437 0.6748572
0.14424449 -0.071035564 0.671
0.15320398 -0.070487894 0.67028576
0.16737962 -0.074516214 0.67371428
0.17001177 -0.076648653 0.67700005
-0.082761519 -0.064449489 0.67448008
-0.054369308 -0.0632523 0.67377424
-0.045011744 -0.066074647 0.67457896
-0.036031947 -0.067337349 0.6746316
0.13897352 -0.069582254 0.67725003
0.14610593 -0.066131845 0.67614299
0.15503034 -0.064971 0.67308068
0.16442834 -0.065084226 0.67176259
0.17075042 -0.062577531 0.67819995
-0.085076809 -0.05499389 0.6744138
-0.061080005 -0.054223575 0.67053849
-0.057868049 -0.05500615 0.67500001
0.14829208 -0.054473855 0.67745465
0.15385807 -0.056013584 0.67289704
0.16756406 -0.058357224 0.67155564
0.17161742 -0.056820791 0.67657143
-0.060616069 -0.049404562 0.67000002
-0.055581681 -0.045991328 0.67415005
0.12685071 -0.043107465 0.67566675
0.13487411 -0.046293437 0.6747368
0.14489104 -0.048181783 0.67394739
0.15098068 -0.04994439 0.67000002
0.11396208 -0.085013688 0.68433338
0.17388272 -0.084546022 0.68800002
-0.087332726 -0.072747976 0.68650007
-0.030480789 -0.071404077 0.68425006
-0.029877057 -0.072925545 0.68300003
0.11971623 -0.076779164 0.68466669
0.12201276 -0.071972944 0.68506247
0.16991897 -0.071614616 0.68100005
0.1728604 -0.074585393 0.68523538
-0.087289974 -0.065200672 0.68442863
-0.051952016 -0.061778571 0.68468422
-0.045373082 -0.063654132 0.68527782
-0.035312992 -0.065639466 0.68542856
0.12634037 -0.068846479 0.6857
0.13604505 -0.067487352 0.68549991
0.14226325 -0.063618444 0.68324995
0.16966945 -0.069317922 0.68000001
0.17388523 -0.064863555 0.6845417
0.14342818 -0.055277415 0.68371022
0.1754529 -0.057939425 0.68366671
0.11554512 -0.084324583 0.69720006
0.17574149 -0.084054939 0.69424999
-0.089212045 -0.072644554 0.69080001
0.1183924 -0.074540615 0.69666672
0.12055756 -0.072783738 0.69212496
0.1773331 -0.074510038 0.69599998
0.11131462 -0.090170979 0.70600003
0.17811511 -0.090868339 0.70700002
0.17861557 -0.085734569 0.70225006
