# .PCD v0.7 - Point Cloud Data file format
VERSION 0.7
FIELDS x y z
SIZE 4 4 4
TYPE F F F
COUNT 1 1 1
WIDTH 456
HEIGHT 1
VIEWPOINT 0 0 0 1 0 0 0
POINTS 456
DATA ascii
0.047839943 -0.02093434 0.59900004
0.050046057 -0.020520665 0.59900004
0.047633119 -0.018783223 0.59900004
0.050046057 -0.019072797 0.59900004
0.045543034 -0.03151634 0.60820693
0.050853699 -0.031641398 0.60866672
0.03982411 -0.026099516 0.60500002
0.044892248 -0.02542928 0.60302222
0.052561451 -0.024253426 0.60399997
0.044893265 -0.014288681 0.60347396
0.053783067 -0.014849411 0.60472506
0.04568138 -0.0085377367 0.60834998
0.051998269 -0.0087548485 0.60866666
0.21575077 -0.12287135 0.61900002
0.2382306 -0.12120249 0.61900002
0.24239819 -0.12137474 0.61888891
0.069585808 -0.11532571 0.61825001
0.075043209 -0.11407742 0.61451763
0.0851487 -0.11486606 0.6146248
0.094672814 -0.11497326 0.61709523
0.10108829 -0.1109784 0.61900002
0.2258798 -0.11405733 0.61826384
0.23493658 -0.11510281 0.61719024
0.24334548 -0.11457544 0.61679727
0.068747722 -0.10340108 0.61826324
0.075120084 -0.10485898 0.61364621
0.085093781 -0.10480917 0.61186218
0.094681181 -0.10475641 0.61395735
0.10228797 -0.10384455 0.61779994
0.226714 -0.10995872 0.61887503
0.23544382 -0.1089868 0.61818528
0.24429321 -0.1089752 0.61825007
0.068893507 -0.097735256 0.61823082
0.074751899 -0.097010881 0.61721873
0.083921589 -0.09844619 0.61743754
0.09572579 -0.098693483 0.61786664
0.10205142 -0.098762952 0.61835712
0.27691242 -0.041277751 0.6183334
0.28166431 -0.042341005 0.61789471
0.045846488 -0.035120349 0.6133244
0.053532556 -0.034427293 0.61268532
0.27486703 -0.034541182 0.61523247
0.28242144 -0.035007007 0.61311913
0.057035863 -0.025881737 0.61362863
0.061094683 -0.021596216 0.61744446
0.27517208 -0.026034068 0.61518729
0.28322878 -0.02567157 0.61303335
0.040153231 -0.018440081 0.61000001
0.058491535 -0.014554373 0.61070585
0.064040832 -0.013759039 0.61606675
0.073373057 -0.011070038 0.61878955
0.039619833 -0.0062235603 0.61700004
0.045086611 -0.0059189736 0.61307913
0.055062924 -0.0065215621 0.61370218
0.064655639 -0.0079311254 0.61734289
0.072983436 -0.0086913891 0.61846155
0.20932071 -0.12011125 0.625
0.21571477 -0.12113925 0.62033337
0.22532459 -0.12284972 0.62076676
0.23473473 -0.12388477 0.62065578
0.24176618 -0.12406892 0.61999995
0.067235313 -0.11206773 0.62364519
0.098754063 -0.11815127 0.62
0.10478869 -0.11240917 0.62233329
0.11250284 -0.11101215 0.62733334
0.20856875 -0.11473811 0.62739539
0.21507044 -0.11501792 0.6225884
0.22257273 -0.11637406 0.62003571
0.06473954 -0.10527984 0.62425321
0.10692496 -0.10577308 0.62178266
0.11404511 -0.10456511 0.62672311
0.2059761 -0.10477927 0.62709659
0.21490797 -0.10511868 0.62435782
0.22506236 -0.10502892 0.62495375
0.23488815 -0.1042366 0.62491894
0.24443734 -0.10471888 0.62460321
0.25158432 -0.10665493 0.626077
0.065022677 -0.094326012 0.6247021
0.075287759 -0.092197888 0.62214583
0.085385576 -0.093649805 0.623878
0.094730422 -0.094044842 0.62470663
0.10500087 -0.094679251 0.62427366
0.11328013 -0.096895456 0.62661368
0.20749544 -0.099281847 0.62862504
0.21505007 -0.099008664 0.6285001
0.22319478 -0.099334195 0.62877774
0.23802519 -0.09959463 0.62900001
0.065913327 -0.088405497 0.62792593
0.07475803 -0.088603124 0.62683791
0.083782226 -0.088948816 0.62815386
0.052427031 -0.040320002 0.62150002
0.26900873 -0.041890152 0.62653852
0.2744959 -0.045225922 0.62276071
0.28171769 -0.04665269 0.62046665
0.046099387 -0.038377553 0.62244445
0.058793664 -0.030731387 0.62
0.26829183 -0.034618083 0.62506145
0.27056986 -0.036803119 0.62073338
0.059491813 -0.028248856 0.62033337
0.065472111 -0.024621265 0.62482607
0.074937433 -0.023660669 0.62671226
0.08148855 -0.022951009 0.62743759
0.24689089 -0.02182602 0.62845832
0.25532264 -0.022280965 0.62786967
0.26586375 -0.024685752 0.62507963
0.2724348 -0.021940174 0.62064296
0.28350508 -0.020776263 0.62277776
0.067652054 -0.017360205 0.62086368
0.07523106 -0.015766183 0.62168419
0.081346989 -0.015620935 0.62504166
0.24719185 -0.017478764 0.62723345
0.25466692 -0.016979845 0.62626654
0.26492032 -0.017443517 0.6252408
0.27408168 -0.017688517 0.62440538
0.28196219 -0.018868284 0.62657148
0.046316244 -0.0030604955 0.62400001
0.05557128 -0.0030139918 0.62430441
0.065305293 -0.0046357117 0.62403232
0.074898712 -0.0066104061 0.62370962
0.080416203 -0.0088196918 0.625
0.11877036 -0.11065427 0.63080007
0.12535071 -0.11046708 0.63322222
0.13562155 -0.11115953 0.63538468
0.14538009 -0.11217014 0.63618731
0.15526564 -0.11230022 0.63629389
0.1649749 -0.11220733 0.63594103
0.17525406 -0.11258597 0.63599986
0.18523419 -0.11269005 0.63530612
0.19545901 -0.11285084 0.63333327
0.20366934 -0.11421522 0.63127273
0.057342693 -0.102858 0.63457149
0.061047018 -0.10285954 0.63037503
0.1187491 -0.10632668 0.63015008
0.12521906 -0.10499802 0.63302308
0.13479121 -0.1055673 0.63666689
0.14516819 -0.10627314 0.63694084
0.15524535 -0.10573137 0.63689393
0.16491483 -0.10607916 0.63695258
0.1749984 -0.10653605 0.63732004
0.18510509 -0.10599963 0.63672572
0.1949234 -0.10473728 0.63366377
0.20133787 -0.10509899 0.6303044
0.24789068 -0.10150352 0.63069236
0.25510561 -0.10295897 0.63482922
0.26080021 -0.10220771 0.639
0.049269531 -0.090880997 0.63900006
0.05577432 -0.094671734 0.63498873
0.060943421 -0.097644702 0.63042867
0.10704002 -0.090873741 0.63022226
0.11615 -0.093210608 0.6327222
0.12351496 -0.096257448 0.63609624
0.19672813 -0.097949982 0.63729268
0.20507289 -0.095885888 0.63456535
0.2150144 -0.094802395 0.63416904
0.22501606 -0.095311485 0.63406026
0.23472342 -0.096519761 0.63420767
0.24460532 -0.096943133 0.63463217
0.25440687 -0.097433105 0.6374523
0.2606858 -0.098432146 0.63900006
0.047804557 -0.084877238 0.63816673
0.054904629 -0.08494164 0.634565
0.064767241 -0.083783574 0.63428915
0.074959479 -0.083647422 0.6347276
0.08508303 -0.084471352 0.63492399
0.094849885 -0.085236691 0.63475478
0.10499685 -0.085326701 0.63523304
0.1147371 -0.085861817 0.63774681
0.12065685 -0.087563068 0.639
0.048497312 -0.079296857 0.63900006
0.054893423 -0.078983404 0.63854998
0.062311441 -0.079382665 0.639
0.089167498 -0.078782007 0.63900006
0.091249593 -0.079117499 0.63880002
0.046157055 -0.040884923 0.63471442
0.26803508 -0.042703766 0.63432008
0.27214631 -0.047830246 0.63378572
0.042937052 -0.039072745 0.63380003
0.064251766 -0.031211784 0.63544446
0.075530797 -0.031392545 0.63333344
0.08239463 -0.03123736 0.63537502
0.2397501 -0.030643456 0.63900006
0.24481086 -0.033385716 0.63578451
0.25520581 -0.033556394 0.63523334
0.26426029 -0.035089485 0.63330656
0.066845946 -0.029355913 0.63158339
0.075191677 -0.028876014 0.63052011
0.083554178 -0.026113899 0.63300014
0.23961559 -0.025697207 0.63663149
0.24385552 -0.025803892 0.63182104
0.25492212 -0.027338563 0.63099992
0.26228037 -0.028558038 0.63063169
0.084767997 -0.015000607 0.63385719
0.24470314 -0.016801871 0.63404649
0.25492471 -0.012602801 0.63466674
0.26516008 -0.013465961 0.63382143
0.27480152 -0.013883474 0.63464004
0.28409982 -0.016729608 0.634579
0.039627291 -0.0048532886 0.63300002
0.046149254 -0.00103278 0.63512504
0.055029001 -0.00074373157 0.63347077
0.06483826 -0.0015485703 0.63425928
0.075085185 -0.003457112 0.63458335
0.082426012 -0.0072790617 0.63492858
0.053902846 0.00076244038 0.639
0.051678974 -0.10084327 0.64080006
0.13672084 -0.10094488 0.64053845
0.1444151 -0.10128641 0.64069241
0.15420465 -0.10065927 0.64006674
0.1658095 -0.1010685 0.6403684
0.17494208 -0.1015093 0.64110011
0.1841722 -0.10114077 0.64054561
0.2628125 -0.10236767 0.64000005
0.03840027 -0.090856642 0.64320004
0.045575842 -0.09413708 0.64311785
0.051227719 -0.097287394 0.64050001
0.12728448 -0.093512669 0.6411283
0.13515855 -0.095327102 0.64470118
0.14496391 -0.096211374 0.64519078
0.15479784 -0.096483037 0.64262891
0.16507284 -0.09682624 0.64433342
0.17514154 -0.097023949 0.64564717
0.18537982 -0.096215092 0.64383548
0.19445981 -0.093750454 0.64204001
0.20367515 -0.091307208 0.64092594
0.21537325 -0.090689205 0.64037502
0.22526188 -0.09072236 0.6409474
0.23531874 -0.091579847 0.64165622
0.2452846 -0.092031993 0.64226204
0.25536096 -0.092781812 0.64196229
0.2643393 -0.094218507 0.64260292
0.27166426 -0.091074795 0.64688885
0.037986916 -0.085232988 0.64299983
0.042874925 -0.084981076 0.64110339
0.11740822 -0.082257062 0.64000005
0.12458801 -0.087566085 0.6411072
0.13200487 -0.089420244 0.64480007
0.1973059 -0.089038767 0.64430004
0.20506707 -0.088266626 0.64308107
0.21458516 -0.088575549 0.64381832
0.22537571 -0.088379033 0.6459707
0.23523796 -0.087919846 0.64671755
0.24490173 -0.088219158 0.64738464
0.25488433 -0.088417985 0.64736861
0.26460245 -0.088640541 0.64764708
0.27221516 -0.088827729 0.64871436
0.038003657 -0.07467667 0.64586121
0.044849336 -0.074810989 0.64422101
0.054968219 -0.074483529 0.64386827
0.065063342 -0.075277843 0.64424139
0.074770257 -0.076410808 0.6441263
0.084271438 -0.077364437 0.64315081
0.27634946 -0.050611559 0.6463334
0.044519953 -0.042050391 0.64585721
0.052472949 -0.04278421 0.64350003
0.25814238 -0.040012442 0.64900005
0.26690179 -0.042776059 0.64470834
0.27143428 -0.047661301 0.64445454
0.040833957 -0.039184496 0.64400005
0.066558875 -0.032267284 0.643125
0.074429691 -0.033087254 0.6437273
0.084707722 -0.032614812 0.64540005
0.23971672 -0.031288873 0.64166671
0.24331217 -0.036928974 0.64329535
0.25480145 -0.038596224 0.64415991
0.26203689 -0.038884833 0.64300007
0.088224269 -0.025177618 0.64400005
0.23950188 -0.026142223 0.64225
0.24050151 -0.02362339 0.6463334
0.088252679 -0.015181278 0.64366668
0.090824351 -0.018573219 0.64900005
0.245516 -0.015235191 0.64444822
0.25369594 -0.011053707 0.64446163
0.26557323 -0.011065274 0.64200002
0.27503592 -0.011319201 0.64300007
0.28457439 -0.013010231 0.64450008
0.29294041 -0.017096477 0.64545447
0.0388618 -0.0019661936 0.64787501
0.041731834 -0.0008442995 0.6427778
0.067908883 -0.00026767934 0.64000005
0.075963371 -0.0010452271 0.64355004
0.084684581 -0.004701708 0.64532357
0.25851047 -0.0096390219 0.64600003
0.26455665 -0.009650629 0.64677781
0.27473429 -0.0096788118 0.64866668
0.21732675 -0.087342493 0.65100008
0.22557679 -0.086188905 0.65421432
0.23513831 -0.083416119 0.65383619
0.24508449 -0.083144411 0.65233362
0.25510755 -0.083477639 0.65301561
0.26514071 -0.08368583 0.65376914
0.27379072 -0.084772572 0.65433353
0.036558293 -0.071081579 0.65100002
0.055354424 -0.070449479 0.65000004
0.065520123 -0.070718758 0.65072727
0.075574204 -0.071522944 0.65134621
0.082866505 -0.072852366 0.65409094
0.23827977 -0.079465605 0.65816671
0.2452049 -0.078846261 0.65788472
0.25427547 -0.079366677 0.65793329
0.26521727 -0.079893425 0.65877777
0.27061474 -0.079920374 0.65900004
0.038707417 -0.066979162 0.65455002
0.044823822 -0.065400451 0.65510261
0.054720294 -0.066775165 0.6551367
0.064557798 -0.067850947 0.65484452
0.074512221 -0.068512663 0.65518183
0.080594614 -0.069115438 0.65725005
0.042128671 -0.051191885 0.65826672
0.27601564 -0.051661618 0.65552938
0.28295386 -0.05319665 0.65683335
0.039888151 -0.040320702 0.65400004
0.043674227 -0.045886084 0.65503788
0.051657666 -0.044889372 0.65400004
0.24684021 -0.04139116 0.65423077
0.25550142 -0.042296503 0.65462518
0.2650651 -0.043544687 0.65440637
0.2716108 -0.048162937 0.65406251
0.039766166 -0.039146751 0.65200001
0.066834979 -0.03478637 0.65618181
0.075519994 -0.034755457 0.65240002
0.086804569 -0.033294316 0.65312505
0.09081611 -0.031483881 0.65650004
0.24190758 -0.034319028 0.65472734
0.037992377 -0.021472311 0.65766674
0.089916945 -0.027504969 0.65000004
0.09194424 -0.024689363 0.65421051
0.24141566 -0.023393592 0.65428579
0.30353212 -0.020452296 0.65900004
0.089916945 -0.011793561 0.65000004
0.092258714 -0.014817112 0.65447378
0.24553764 -0.01388437 0.65494877
0.25135815 -0.010775066 0.65175003
0.28792277 -0.011364019 0.6511429
0.29506156 -0.013563395 0.6543479
0.30047196 -0.018701598 0.65350008
0.21974504 -0.08867944 0.66900003
0.22632824 -0.085998647 0.66418183
0.23245127 -0.081944428 0.66309518
0.2765834 -0.081101485 0.66141671
0.28189144 -0.083623424 0.66557139
0.035174988 -0.077910811 0.6645
0.086330786 -0.072532758 0.66430008
0.2366838 -0.076617144 0.66452938
0.24473338 -0.074813478 0.66429323
0.25527847 -0.075290889 0.66427523
0.26505098 -0.075037375 0.66440225
0.27411911 -0.074755125 0.66604275
0.28043985 -0.078917205 0.66850007
0.037550755 -0.062933683 0.66344446
0.047503591 -0.06083028 0.6605556
0.055527486 -0.061639547 0.66194117
0.064565472 -0.064231716 0.66428125
0.075335898 -0.066299208 0.66390473
0.082373776 -0.067912184 0.66450006
0.27526018 -0.060650289 0.66900003
0.037880346 -0.05501923 0.66432434
0.045064222 -0.055882614 0.66123974
0.053486537 -0.055280447 0.66558343
0.26791769 -0.052672468 0.66830003
0.27412918 -0.055306613 0.66553652
0.28219038 -0.056268666 0.66581821
0.037778717 -0.045076098 0.6640811
0.049049012 -0.0484217 0.66100007
0.054054797 -0.04788078 0.66508335
0.24745439 -0.042954456 0.66442859
0.25516325 -0.045182191 0.66419047
0.26561332 -0.047473136 0.66493624
0.2708281 -0.048892483 0.66160005
0.035021722 -0.034572739 0.6666829
0.065527394 -0.036575913 0.66466665
0.07339973 -0.036524341 0.66400003
0.086642198 -0.036639683 0.66366673
0.092445239 -0.033251703 0.66537505
0.24263474 -0.033681974 0.66511112
0.24157868 -0.024683887 0.66423339
0.21964765 -0.089077108 0.67200005
0.22617617 -0.08737012 0.67469996
0.23251177 -0.082765818 0.67425007
0.28639039 -0.083425827 0.67409086
0.088491097 -0.072672397 0.67299998
0.23643553 -0.074279457 0.67431051
0.24441636 -0.070992418 0.67396289
0.25501153 -0.071158051 0.67178953
0.26271677 -0.070457846 0.67000002
0.27886948 -0.07121294 0.67033339
0.28355801 -0.075181961 0.67515004
0.034236427 -0.06298057 0.67530763
0.065808095 -0.062192753 0.67405266
0.075165682 -0.064382523 0.67425931
0.083387062 -0.066394575 0.6734286
0.24840792 -0.069686085 0.67720008
0.25636026 -0.068480328 0.67652947
0.26458153 -0.06491489 0.67373592
0.27447775 -0.065159552 0.67060751
0.28295738 -0.065149367 0.67496002
0.033456113 -0.054457199 0.67450011
0.058532897 -0.054001808 0.67227274
0.061547171 -0.055598762 0.67618185
0.25947025 -0.0512321 0.67750001
0.26375741 -0.055647139 0.67311829
0.27117339 -0.059301402 0.67000002
0.28595877 -0.058352225 0.67288899
0.29000574 -0.058102746 0.67700005
0.03268167 -0.044874705 0.67455554
0.058892831 -0.046571534 0.67292309
0.24666862 -0.043148566 0.67633337
0.25515389 -0.047503699 0.67465216
0.26138806 -0.048919432 0.67075002
0.24194476 -0.035893977 0.67453665
0.24058545 -0.028891105 0.67000002
0.22652812 -0.088397861 0.68350005
0.2332487 -0.083537474 0.6849286
0.2880038 -0.080275618 0.68000001
0.29195997 -0.083804585 0.685
0.033093214 -0.07179641 0.68800002
0.089202307 -0.071562842 0.68050003
0.091133609 -0.072387069 0.68575001
0.23639564 -0.073759839 0.68452173
0.28830928 -0.076421291 0.68280011
0.29104954 -0.076288477 0.68850005
0.031840827 -0.064502195 0.68494123
0.06827122 -0.061162021 0.68225002
0.075109154 -0.061572019 0.68582845
0.084810533 -0.064213216 0.68560529
0.09073931 -0.069024757 0.68800002
0.23933253 -0.069626495 0.68575007
0.24493174 -0.068390027 0.68419367
0.25619888 -0.064675689 0.68415147
0.28782308 -0.06550888 0.68216664
0.29212326 -0.06315504 0.68711114
0.030757047 -0.055847071 0.6809091
0.25625667 -0.054515012 0.68566275
0.29569751 -0.058230758 0.68585724
0.25375777 -0.048817106 0.68349999
0.22814591 -0.090273991 0.69800001
0.29857314 -0.090144657 0.69700003
0.032105088 -0.080603026 0.69866675
0.095569 -0.080265835 0.69900006
0.22901961 -0.088788576 0.69300002
0.23360054 -0.084403723 0.69550002
0.29661369 -0.083674379 0.69423079
0.094525196 -0.074064672 0.69478947
0.236167 -0.074136309 0.69434494
0.29479051 -0.074886501 0.69421059
0.031045627 -0.06873855 0.6918
0.25316465 -0.06311851 0.69152951
0.29655525 -0.065334588 0.69391662
0.29934317 -0.059304282 0.69100004
0.22694997 -0.091245241 0.70625001
0.30478182 -0.091503054 0.70750004
0.031410463 -0.085024849 0.70245004
0.23276538 -0.08374799 0.70438087
0.29985824 -0.082636669 0.70000005
0.30534944 -0.083822533 0.70602632
0.29897422 -0.074802145 0.70057148
0.308817 -0.088286757 0.71066666
